-0.0901343 0.117757 0.0446944
-0.0870548 0.0851287 0.00878393
-0.02971 0.125287 0.00304499
-0.0888285 0.151762 0.0201384
-0.0824649 0.0870686 -0.00570645
-0.0121229 0.0360964 0.0496702
0.0386623 0.0509725 0.0320393
0.0535958 0.0700167 0.0034643
0.045062 0.0817103 0.022736
-0.0347563 0.0803088 -0.0235596
-0.0771945 0.153045 0.0322814
-0.0709083 0.0656461 -0.000221214
-0.0821161 0.105262 0.0288812
-0.0562221 0.087708 0.0446515
-0.027421 0.0921577 0.0451139
-0.0686722 0.0609735 0.0113414
0.017805 0.094266 0.0479657
-0.035631 0.0662864 0.0412256
-0.00614915 0.0957322 0.0544067
-0.085774 0.143616 0.00730063
-0.0251589 0.117483 0.0328062
-0.00946702 0.11614 0.0396938
-0.0535348 0.0909703 -0.0221838
-0.0482273 0.134208 0.00514768
-0.0702272 0.0810761 0.0405948
-0.0211651 0.127333 0.0105359
-0.00123497 0.0422466 0.04696
-0.0263626 0.178327 -0.00874354
-0.0510786 0.071589 0.0399926
-0.000275158 0.071605 0.0572817
-0.0113119 0.0387312 -0.00243028
-0.031362 0.0435834 -0.0289103
-0.0370462 0.1705 0.000462869
0.0234987 0.120774 -0.00448203
-0.0253463 0.103309 -0.0234985
-0.0407184 0.0958807 -0.0224472
-0.0693944 0.119303 0.0528731
-0.0232434 0.0599115 0.0431021
-0.0469107 0.0788768 0.0431174
-0.00768178 0.102243 -0.0237379
0.0160087 0.0997055 0.0470529
-0.0663446 0.137403 -0.00796713
-0.0630758 0.0391753 0.0423768
0.0439112 0.0429929 0.0237338
-0.0460784 0.132738 0.0153892
0.0426374 0.101126 0.00538769
0.0391423 0.0889969 0.0338174
-0.020099 0.034695 0.0486732
0.00572677 0.099236 0.0480907
-0.0645782 0.112337 0.0389468
-0.0460445 0.0378852 -0.0183075
0.0607684 0.0652704 0.0152974
-0.07578 0.100537 -0.0114974
0.0251871 0.06119 -0.0238132
0.0540689 0.0593551 -0.00219717
-0.00516136 0.0825132 -0.0377417
0.0435322 0.0403252 0.00937756
-0.00515848 0.0871147 0.0571203
-0.0699999 0.16091 -0.0484286
-0.0700066 0.0974267 -0.0157201
0.0420296 0.0764832 0.0292419
-0.0339732 0.0337144 -0.0286987
-0.011877 0.082787 -0.0388039
0.0405616 0.0639816 0.0301471
0.0507363 0.0512051 -0.00233494
-0.0570597 0.109383 0.038276
-0.0826843 0.145293 0.00188884
-0.0231631 0.108796 0.040542
-0.0720379 0.141093 -0.00781318
0.046689 0.0756408 0.0145973
-0.0325068 0.161539 -0.00174322
-0.0628669 0.156104 0.0188881
0.0117875 0.117951 -0.0151798
-0.0552719 0.0991744 -0.0210346
-0.0727552 0.120718 0.0535403
-0.0605355 0.0343426 0.0350099
0.0317163 0.0366868 0.00258327
-0.028128 0.0843001 -0.0355857
-0.0402275 0.0817706 -0.0204822
0.02734 0.120213 0.0256433
-0.0778416 0.155227 0.0107149
0.056474 0.0594977 0.00075026
0.0419685 0.0873537 -0.00828678
0.0274171 0.0567402 -0.0201045
-0.0283672 0.048399 -0.0245657
-0.0550712 0.123204 0.0384986
0.00298627 0.131302 0.0056194
-0.0234978 0.0542939 0.0423344
0.0318926 0.0709519 -0.0186859
-0.0495753 0.0874086 0.0454378
-0.0565296 0.119016 -0.0117024
-0.0484027 0.127486 -0.00434775
-0.016106 0.170025 -0.0159928
0.0311359 0.058227 0.0399543
-0.0821579 0.110756 0.04272
0.014342 0.0479241 -0.025386
-0.0433385 0.169016 -0.00842821
-0.0359485 0.0360866 -0.0155935
0.0281792 0.0477985 -0.0133563
0.048679 0.066721 0.0274097
-0.0216099 0.0891659 -0.0368288
-0.00277708 0.131033 0.0167088
-0.0222623 0.0567343 0.044364
0.00892487 0.0345902 0.0410911
0.0381692 0.059118 -0.00757345
-0.0193132 0.16154 -0.0072757
-0.0405635 0.15035 -0.00486494
0.0351796 0.0362317 0.0118075
0.0243339 0.110128 -0.0133563
-0.0813545 0.114248 0.0472622
-0.0216597 0.169376 -0.0128031
-0.0326335 0.089968 -0.0248517
-0.0133803 0.119316 0.0366962
0.0366202 0.0768946 -0.0131643
0.0462373 0.0827394 0.0110785
-0.0654894 0.0399207 0.0370339
-0.0706821 0.0721191 -0.00973034
-0.0402078 0.170911 0.000367058
-0.0212089 0.0967634 -0.0255514
0.0463991 0.0772419 0.00837332
-0.0227203 0.0533847 -0.0294577
0.0153769 0.0342778 -0.000622135
0.0464988 0.0704571 0.00291383
-0.0140973 0.113281 -0.0180064
-0.0340097 0.118759 0.0304649
-0.0284751 0.104754 -0.022671
-0.0681767 0.163973 -0.016672
-0.011186 0.0744586 0.0567323
-0.0658262 0.147843 -0.0274543
-0.0192398 0.165716 -0.0111282
-0.0544162 0.0625672 0.0303015
-0.084476 0.105249 0.00116257
-0.0899267 0.14759 0.0118362
-0.0624526 0.150312 -0.0108666
0.00275682 0.0341828 0.0135144
-0.0537264 0.134411 -0.00373227
-0.0403182 0.0535595 -0.0110644
-0.0750157 0.138886 0.0487097
0.0555014 0.0609039 0.0269247
-0.0208905 0.0377029 -0.0283053
0.0177878 0.034559 0.000740246
0.00609519 0.1308 0.0210108
-0.0469006 0.0976039 0.0431473
-0.0109643 0.0420118 0.049977
-0.0286606 0.168386 -0.00830739
-0.0543019 0.0732364 0.0409108
-0.0880448 0.111625 0.0199854
-0.0857603 0.117241 -0.000106578
-0.033739 0.035564 0.032321
0.0290495 0.0596591 -0.019586
-0.0301084 0.125961 0.0111523
-0.00809177 0.0628822 0.0560317
0.00430934 0.0978064 0.0509439
0.0135628 0.0559512 0.0504468
0.0161755 0.0587733 -0.0282635
-0.033913 0.038202 -0.0136279
0.00199644 0.0557668 -0.0315929
-0.0222203 0.110162 -0.0203167
0.0142545 0.0697168 -0.0310183
-0.0243565 0.122845 0.0250195
0.0360824 0.0910338 0.0381181
0.0190267 0.0802216 0.0520669
0.0113961 0.0944435 -0.0276263
0.0519981 0.0700242 0.0241616
-0.00304936 0.114481 -0.0178706
-0.0612789 0.117163 0.0400691
0.00569531 0.115283 0.0398665
-0.00580392 0.105843 0.0441107
-0.0743869 0.155831 0.0235804
-0.091397 0.120374 0.00722299
-0.0418522 0.127919 0.0158361
-0.0666863 0.153982 -0.0473252
-0.0831181 0.081533 -0.00130398
-0.0235967 0.122859 -0.00586101
0.00069699 0.111663 -0.0198899
-0.0477031 0.14764 0.00914432
-0.0289638 0.0383683 -0.00897888
-0.0461757 0.13074 0.00414878
0.0454396 0.0763841 0.0216959
-0.0476727 0.144658 0.00419538
-0.0168941 0.0633198 -0.0366449
-0.0136517 0.0694936 -0.0381318
-0.0333091 0.105689 0.0396196
-0.0534044 0.155849 -0.00314695
-0.0673859 0.10037 -0.015817
-0.0419402 0.0930164 -0.0229461
-0.00847917 0.0964566 0.0535563
-0.06592 0.125964 0.0490219
-0.0623453 0.0951652 -0.0184992
-0.081545 0.0747668 0.0175826
-0.0660202 0.126322 -0.00886644
-0.0612099 0.0468397 0.00153788
0.0416922 0.0687001 -0.00572252
-0.0393524 0.0364073 -0.00648108
-0.0263826 0.162814 -0.0153506
-0.0603491 0.133554 -0.0069633
0.02898 0.120093 0.00442901
0.0354189 0.112037 0.0238561
-0.0931291 0.117502 0.0138628
-0.015016 0.0383005 0.0225827
-0.0283851 0.0386483 -0.0125662
-0.0680538 0.0613269 0.0172181
0.0325016 0.0549172 -0.0123247
0.0249193 0.0356927 0.00073557
-0.0595305 0.0812245 -0.0199055
0.0367794 0.111587 0.0167447
-0.078753 0.147008 0.0410577
0.0355845 0.043075 0.0289684
0.0227308 0.125381 0.0180834
-9.34959e-05 0.123622 0.0341115
-0.0647022 0.155432 0.00865943
-0.0907975 0.11491 0.0405114
-0.0518128 0.0478439 0.0394441
-0.0743972 0.150254 0.0380816
-0.0711229 0.156154 0.0236839
-0.0574475 0.141073 0.0322099
0.0156935 0.129185 0.0125393
-0.0218956 0.125434 0.000339127
-0.0348466 0.176875 -0.00956924
-0.0751907 0.155991 0.0207138
0.0554022 0.0646398 0.0264875
-0.00575014 0.0712008 0.0575868
-0.0215941 0.118029 0.0343223
-0.0150968 0.0660985 -0.0377071
-0.0538416 0.070656 0.0391365
-0.014141 0.0973368 0.0507491
-0.0729363 0.174425 -0.0515624
0.0160614 0.0856739 0.0513846
-0.00902122 0.0387033 0.000294622
0.0254043 0.0608891 0.0445115
0.0041319 0.10078 0.045968
-0.0661934 0.15631 0.0184813
-0.0570254 0.128386 0.0386165
0.0297667 0.0464137 0.0340986
0.0350347 0.0986034 -0.0124534
0.025656 0.069835 0.04425
-0.0885045 0.103369 0.0137654
-0.0343231 0.119015 -0.0113478
0.0371154 0.0387885 0.00173664
0.0238745 0.0446857 -0.0139808
0.051301 0.054938 -0.00358521
-0.0208497 0.161964 -0.0148305
-0.0361501 0.1252 -0.00494654
0.0454949 0.0834985 0.0200138
-0.0770145 0.109632 -0.00619285
-0.0779724 0.171882 -0.0429451
0.00645024 0.130175 0.00102163
-0.0720956 0.0385522 0.00543355
-0.0544632 0.0349212 0.0442948
0.0230595 0.034964 0.00192422
-0.0243298 0.0707619 0.0462759
-0.0210797 0.0725738 0.0524855
-0.0904675 0.13079 0.038766
-0.0598963 0.0455035 0.0285748
-0.0596998 0.0465862 0.0313945
-0.0467337 0.0675656 -0.0149297
-0.0767273 0.0697462 0.00402193
-0.0735661 0.0734657 -0.00851727
-0.0243528 0.0695793 -0.0362075
-0.0338453 0.0693092 -0.0190339
0.016147 0.125842 -0.0024963
0.00556125 0.120659 -0.0137506
-0.00711461 0.0875228 -0.0368676
-0.0248561 0.0381572 -0.0290907
-0.0664616 0.142426 -0.00974837
-0.0565309 0.0409972 -0.00903639
0.00410621 0.0452974 -0.0263146
-0.0523355 0.140087 0.000332999
-0.026945 0.0383885 -0.00661071
-0.0309796 0.0372951 -0.0180504
-0.0426842 0.0338402 -0.00967336
0.0100957 0.0342012 0.00143573
0.00382119 0.0366371 -0.00126502
-0.0580526 0.0334192 -0.00505795
-0.023613 0.0381479 0.00842429
-0.059224 0.0341555 0.0282927
-0.00013 0.039558 0.035725
-0.0497738 0.0345241 0.0353408
-0.0664468 0.145116 -0.0184318
-0.0225097 0.166556 -0.0179049
-0.0230439 0.107816 -0.021786
-0.00957188 0.0384163 0.0144921
-0.0617476 0.157749 -0.0283784
-0.0670111 0.0627553 0.000654741
-0.0585993 0.0696706 -0.0143452
0.0458532 0.086813 0.01085
0.0524607 0.0464279 0.00888266
-0.00471589 0.0583395 -0.0338573
-0.0365233 0.153474 -0.00773612
0.0127615 0.0581194 -0.0293244
-0.0572434 0.153925 0.0269153
-0.00328694 0.0398355 0.047559
0.0390801 0.0648772 -0.00970122
-0.0768561 0.108626 0.0385235
-0.0521878 0.0675906 -0.0132493
-0.0588984 0.0600803 0.0227873
-0.00757643 0.09572 -0.0320345
-0.0534003 0.0630723 -0.00968615
-0.0892724 0.140048 0.0320534
-0.0778612 0.14362 -0.00433504
-0.0638114 0.152593 -0.0337354
0.0397452 0.0946658 0.0307637
0.0186391 0.0544136 0.0473484
0.0433667 0.0565299 0.0318495
0.0473195 0.0425736 0.0158811
-0.0093773 0.0482755 -0.030297
-0.00699384 0.0389786 -0.0071963
-0.0514008 0.0508255 -0.00756967
-0.0586503 0.0579602 0.0102103
-0.0127486 0.125379 -0.00522274
-0.054049 0.127731 -0.00553147
-0.0167843 0.0368615 -0.0175245
-0.0194752 0.0355218 -0.0194792
0.021965 0.036037 0.0116655
0.0426017 0.040365 0.0170405
0.0242131 0.08957 0.0475537
-0.0422558 0.0762406 -0.0184912
-0.0404116 0.0345286 0.0360286
-0.068697 0.158423 -0.0522421
-0.0621308 0.153942 -0.0186801
-0.0758045 0.126683 -0.00765755
0.0280209 0.07323 -0.0228126
0.0187311 0.0594978 0.0486387
0.0372922 0.0642895 0.0358907
-0.0202217 0.108939 0.0410214
-0.0806734 0.0723248 0.0116163
-0.0762251 0.169679 -0.0435006
-0.0546116 0.0488604 0.0352064
-0.0581848 0.0658211 -0.00933685
-0.0787079 0.0754169 -0.00506553
0.004675 0.037164 0.0361455
-0.0670085 0.0839798 -0.0181356
0.0286535 0.083959 0.0443496
0.0455294 0.0861224 0.0169109
0.037287 0.106848 -0.00204857
-0.0683787 0.11156 -0.011001
-0.0929627 0.11952 0.0259204
-0.0253878 0.160067 -0.0132931
-0.0885085 0.112396 0.0361533
-0.0399984 0.123971 0.0241876
-0.0270218 0.0547228 -0.0263236
-0.0796385 0.109662 0.0401389
-0.0479842 0.101006 0.0421528
0.0253238 0.0776841 -0.0248003
-0.0837756 0.110376 0.0271815
-0.0187413 0.0663307 -0.037307
-0.0290604 0.163903 -0.00531532
0.0058325 0.0341095 0.013797
-0.0873537 0.0842098 0.0143576
0.0299166 0.111033 0.0333539
-0.0246678 0.182934 -0.0157017
-0.0381557 0.164858 -0.0130078
-0.0294903 0.0706481 -0.0310603
-0.00838858 0.122174 0.0351036
0.000848465 0.0391311 0.0297355
-0.0803503 0.129573 -0.00509051
-0.00318506 0.124562 0.0331041
0.0234432 0.108093 0.0386241
-0.0441309 0.0482496 0.0401996
0.031259 0.0999316 0.0384906
0.0436017 0.0740808 -0.00290199
-0.077242 0.0762595 0.0313645
-0.0554181 0.0783995 -0.019965
-0.0326182 0.116177 0.0325795
-0.0073481 0.0753611 -0.0372564
0.0401624 0.0900272 0.0317676
-0.0824237 0.131999 0.0507619
-0.0802832 0.106657 0.0308597
-0.0927696 0.117507 0.0230019
0.0398233 0.044041 -0.00323432
-0.0755715 0.146405 -0.00777722
-0.0231508 0.126705 0.00884893
-0.0276783 0.0888315 0.046297
0.00852835 0.0644815 -0.0318248
-0.00471317 0.0385179 0.00721313
-0.000389259 0.130903 0.0194417
-0.0428011 0.111979 0.0360374
0.0428387 0.0940136 -0.00245411
-0.0181339 0.126545 0.0218641
-0.041059 0.034631 0.0253855
-0.0354004 0.152183 -0.00491364
-0.0397786 0.0343866 0.0311566
0.0332502 0.11358 0.0264379
-0.0517847 0.0602471 0.0306504
-0.0818141 0.0802083 -0.00350606
0.0441822 0.0921355 0.0216989
-0.0785776 0.0736712 0.0258326
-0.0776759 0.160444 -0.0234982
-0.0210616 0.15965 -0.00614184
0.0232796 0.124194 0.00362893
-0.0423839 0.150547 0.00535951
-0.0297815 0.122944 0.0227806
0.0427974 0.0915284 -0.00419309
0.0531624 0.0566733 -0.00253045
-0.0645635 0.153507 -0.00452786
-0.028692 0.101593 -0.0232708
-0.0869389 0.0864566 0.0022303
-0.0121243 0.059089 0.0535032
-0.0622341 0.158205 -0.03592
-0.0692951 0.152884 -0.045763
-0.0384537 0.168252 0.00168231
0.0225815 0.0355287 0.0249341
-0.0166869 0.108762 0.0417483
-0.0670133 0.15674 -0.0521284
-0.0789703 0.115357 0.0487006
0.00780719 0.128749 -0.00198904
0.0114197 0.0457542 -0.0252217
-0.0742281 0.0690239 0.0256996
-0.0560867 0.114593 -0.0152367
-0.0755211 0.154278 0.0294364
0.0459093 0.079729 0.0199352
-0.0624838 0.159479 -0.0393629
0.0573382 0.0678061 0.0227341
-0.0255977 0.106495 -0.0220871
-0.0780829 0.1007 -0.00944058
-0.0588741 0.0841887 -0.0206862
0.0552711 0.0533388 0.0018664
-0.0474868 0.0625008 -0.0127358
-0.0807706 0.139959 0.0467302
0.00185874 0.064435 -0.0339201
-0.0653241 0.107168 -0.0144644
0.0402807 0.106346 0.00717438
-0.0596925 0.143575 -0.00357546
0.0393786 0.101094 0.0273556
-0.00721066 0.0902078 0.0569102
-0.0648614 0.0599761 0.0166531
-0.0537502 0.0334744 7.8358e-05
-0.0773117 0.0686082 0.0127914
-0.0879067 0.11679 0.0462358
-0.0626726 0.176251 -0.0581232
0.00590199 0.117748 -0.0163017
-0.0373718 0.127359 0.00108679
-0.0687379 0.154812 0.0295687
-0.0646634 0.0338845 -0.00580686
0.0186336 0.118735 -0.0108379
-0.073728 0.112201 0.047856
-0.0779909 0.144502 0.0439673
0.0371505 0.110682 0.00383982
-0.0683647 0.144195 0.0431078
-0.0343022 0.126564 0.00236874
-0.0251207 0.0557982 -0.0289011
-0.0286664 0.178993 -0.0150071
-0.0109664 0.167947 -0.0186911
-0.0843311 0.0900966 -0.00435851
0.0504172 0.044975 0.00727459
-0.0492152 0.14032 0.00688138
-0.0513564 0.0452514 -0.00877696
-0.0527108 0.0454212 0.0185119
-0.0733084 0.0647292 0.0123246
-0.0322371 0.0867614 -0.0266731
-1.04057e-06 0.115117 -0.01838
0.0183411 0.0562533 -0.0278943
-0.0342187 0.15446 -0.00830073
-0.0174343 0.162335 -0.0152351
-0.0505624 0.115784 -0.0154335
-0.0469054 0.151079 0.00931462
-0.0743463 0.105973 -0.0101748
0.0412914 0.0731462 0.0305753
-0.0709552 0.128455 -0.00881822
-0.011077 0.09878 0.0496349
0.00761839 0.0614473 0.0546714
-0.0631835 0.150782 0.0361484
0.0223467 0.0450155 -0.0174284
-0.0113745 0.179113 -0.0262677
-0.0579177 0.131258 -0.00653905
-0.0531866 0.113706 -0.0163221
-0.0447063 0.0336151 0.00191703
0.0313138 0.0358919 0.0168397
-0.0500562 0.136006 0.0234264
-0.076261 0.0871868 0.0385111
-0.0732053 0.171651 -0.0334621
0.0113682 0.113144 -0.0180331
-0.0154082 0.178676 -0.0266258
-0.0738361 0.154904 -0.0269543
-0.082925 0.130563 -0.00338579
-0.0225285 0.0629844 0.0447709
-0.0197722 0.184382 -0.0165046
-0.0226488 0.0384989 0.029882
-0.0875213 0.124463 -0.000432296
-0.017086 0.0382344 0.0117782
-0.0143649 0.095064 0.0535111
-0.0633526 0.155118 0.0273832
-0.015821 0.0347425 0.0447655
-0.0872654 0.095502 0.00388064
0.0247878 0.123791 0.00676909
-0.0556703 0.0422835 0.0457945
0.0215781 0.108379 -0.0156751
-0.0762908 0.176988 -0.0483582
0.00303352 0.11656 -0.0176933
-0.038218 0.0340661 0.00860736
-0.0892451 0.144304 0.0122314
-0.0644899 0.105315 0.0399912
0.0491826 0.0447378 0.00419284
0.0356113 0.0977238 0.0355262
-0.0542117 0.156804 0.0101919
-0.0525774 0.0705807 -0.0150205
-0.0693758 0.0638365 0.00161581
-0.0677171 0.0784085 -0.0166701
0.00712977 0.0775745 0.0559894
-0.0817635 0.146779 0.0391196
0.0323432 0.0928987 -0.0173364
-0.0736024 0.161918 -0.036803
0.0292841 0.0424097 0.0308889
-0.0465861 0.0352596 -0.0156853
-0.0503592 0.0462385 0.041616
-0.0872286 0.0846977 0.0113695
-0.0226874 0.106327 0.0420045
0.0342606 0.115065 0.00729495
-0.0373376 0.125436 0.0216925
0.000894906 0.0370935 0.0212988
-0.0673678 0.167367 -0.026053
-0.0610666 0.0335409 0.00694667
-0.0757684 0.15524 0.00795954
-0.0761794 0.133202 -0.00679198
-0.0529971 0.142847 0.0238389
-0.0734284 0.165333 -0.0413375
-0.0528728 0.0603368 -0.00879728
0.0199452 0.0515707 -0.0253028
-0.0601634 0.0622622 -0.00395265
-0.0458607 0.145674 0.00218755
0.0163678 0.0639899 0.0504871
-0.0634031 0.159791 -0.0492494
0.0390171 0.0853652 0.0343948
-0.0167871 0.0430529 -0.0275729
-0.0578066 0.0743295 0.0416637
-0.0632406 0.124355 -0.00881407
-0.0315167 0.0603895 -0.0174405
0.0229074 0.0621771 0.0463981
0.0145376 0.129302 0.0186541
-0.0853532 0.13735 0.0450174
-0.0275639 0.037879 0.0242939
0.026111 0.122187 0.00423103
-0.0381567 0.0370335 0.0431728
-0.0653114 0.035363 0.0146154
-0.0446863 0.0403891 -0.0199053
0.0323976 0.116475 0.00214824
-0.0758307 0.164265 -0.0359364
0.0471614 0.0741519 0.00806959
-0.0925685 0.12072 0.0295241
0.0229298 0.100242 0.0444056
-0.0633531 0.156086 0.0160667
0.0555704 0.050011 0.019726
-0.0851289 0.133965 -2.88928e-05
0.0365603 0.0853767 0.0375506
0.0453706 0.0537063 0.0319414
-0.000986626 0.0661048 -0.0343471
0.0360918 0.112651 0.0135405
-0.083538 0.140018 0.0445847
-0.091079 0.126333 0.0425486
0.00966757 0.119206 0.0366568
-0.0553507 0.106264 0.0403888
-0.0578004 0.0990567 -0.0198254
-0.0618159 0.107597 0.0390509
-0.0478929 0.072502 0.0412871
-0.0320677 0.125173 0.000533539
0.0221163 0.124405 0.023977
0.0228014 0.0652696 0.0462204
0.0599958 0.068415 0.0153643
-0.0493081 0.140955 0.00987076
-0.0658379 0.142213 0.0415361
-0.0238145 0.164501 -0.00799712
-0.084537 0.12426 -0.00336322
-0.0517707 0.0570546 0.0289199
0.0375849 0.0882687 0.0361686
0.00809492 0.0445778 0.0460746
-0.0803596 0.114283 -0.00267649
0.0179321 0.106873 0.0415321
-0.0718456 0.157406 -0.0401728
-0.0107889 0.0984081 -0.0273116
0.0384539 0.08356 -0.0139661
-0.0381505 0.0336495 0.0052935
-0.0302456 0.113754 -0.0165429
0.0314673 0.0795183 0.0430104
-0.0443173 0.0456518 -0.0114762
0.0145648 0.045661 0.0439324
-0.0168322 0.0593093 0.0513173
-0.0407191 0.0482221 0.0400588
-0.0215361 0.178984 -0.0142447
-0.0122965 0.0554538 0.0518342
-0.0143537 0.120317 -0.0114232
0.0439074 0.0724073 0.02551
0.000360894 0.0357846 -0.0234324
0.0384091 0.0473006 -0.00566611
-0.0642964 0.148361 -0.024431
0.00839807 0.0874287 -0.032344
-0.037795 0.0336058 -0.0224764
0.0363181 0.0678176 -0.0141179
-0.0144453 0.0460629 0.0497057
-0.0232986 0.124258 -0.00258763
-0.0235326 0.0746061 0.0508836
-0.0475756 0.0743303 -0.0170207
-0.0166008 0.121416 -0.00884918
-0.0410852 0.062077 0.0408678
-0.0559547 0.111537 -0.0170011
0.002885 0.0347513 0.03928
0.0255037 0.0574111 -0.0229449
0.0377809 0.100766 0.0303762
-0.019594 0.1592 -0.00938335
-0.0610093 0.0380081 0.0208983
-0.0128306 0.0897338 -0.0371648
-0.0651457 0.0713724 -0.0131125
0.0418207 0.0398545 0.00601192
0.0325076 0.0377468 0.022394
-0.0332979 0.154961 0.000878907
-0.00832987 0.038807 0.0301476
-0.0917781 0.133085 0.0187212
-0.0726365 0.168624 -0.0246197
0.0124713 0.0986904 0.0482005
0.0137049 0.0951259 -0.0255733
-0.049777 0.0340505 0.0276035
0.00565526 0.0464227 0.0486654
-0.0904298 0.140835 0.0232277
0.0324658 0.0434352 0.0293324
-0.0725036 0.0750874 0.035931
-0.0371989 0.110458 0.0365513
0.0349135 0.110175 0.0275359
-0.034598 0.160375 -0.0132181
0.0064135 0.0347105 0.038691
0.0184184 0.0724041 -0.0287412
-0.0626609 0.162464 -0.0478229
0.0106839 0.0359902 -0.0220279
-0.0465147 0.0820577 0.0436565
-0.0874139 0.132285 0.00179198
-0.07714 0.0717249 -0.00145471
-0.0729867 0.0960764 -0.0146355
0.0447834 0.0899156 0.0202561
-0.0382575 0.0990655 0.0419996
-0.081206 0.109595 0.0322112
-0.0300457 0.092591 -0.0250488
0.0275495 0.0346309 0.0108165
-0.0645551 0.0823863 0.0437182
-0.0640802 0.0786816 0.0420731
0.019023 0.122454 0.0304823
0.01547 0.0347455 0.0257393
-0.0331768 0.0348665 0.0433416
-0.0568622 0.0452869 0.0137835
-0.0464923 0.034583 0.0363425
-0.0267992 0.170704 -0.00989465
-0.051531 0.128852 -0.00416905
-0.0247929 0.100982 0.0438757
-0.0466875 0.154688 0.008986
-0.034003 0.0969624 -0.023108
-0.0841011 0.107941 0.00237488
-0.0732208 0.085449 -0.015582
-0.0483753 0.077328 -0.0185992
-0.00857373 0.066103 -0.0357358
-0.0494189 0.080156 -0.0202412
0.0102532 0.0524537 -0.0292357
0.0291185 0.0517597 0.0379018
0.00122663 0.0584181 0.0549586
-0.0856706 0.105507 0.00439407
-0.0834478 0.0766711 0.0168952
-0.0623795 0.0437185 -0.00395405
-0.00760366 0.0440022 -0.026995
-0.051284 0.126277 -0.00612836
-0.0570489 0.0990491 0.0432577
-0.0403479 0.0464422 -0.0176035
-0.023275 0.126381 0.00587025
0.00277075 0.0352948 0.00169933
-0.0882131 0.110941 0.0169956
-0.0325422 0.159254 0.00104572
-0.0408578 0.0450154 -0.0209296
-0.0652268 0.0438936 -0.00101852
-0.015737 0.0382679 0.014853
-0.0900056 0.144204 0.0288188
-0.0438474 0.0820892 -0.0204474
-0.0691751 0.161228 -0.0513567
-0.092478 0.125291 0.0372396
-0.0188219 0.117283 -0.0143242
-0.0545522 0.139881 -0.00204213
0.0136251 0.0832987 -0.0303618
-0.0260009 0.03836 0.0303527
-0.0601727 0.0434867 0.0256047
-0.0798061 0.15506 0.0134743
-0.0869119 0.0856735 0.0209757
0.0298233 0.050566 -0.0137707
-0.0704005 0.156026 0.0110619
-0.00969483 0.0884051 -0.0369976
-0.027146 0.177576 -0.0175298
0.0218374 0.0978819 0.0461637
-0.0396818 0.126717 0.0188723
-0.0773447 0.104086 0.0344295
-0.0845568 0.0848848 0.0267341
-0.0621665 0.171945 -0.054239
-0.0319483 0.162215 -0.0145069
0.0177609 0.128124 0.0100203
-0.0624834 0.153818 0.0016469
-0.0399794 0.166457 -0.0117296
-0.0736914 0.177536 -0.0466475
-0.0667376 0.152823 -0.0442386
0.0521811 0.0623872 -0.00252759
-0.0256269 0.0417715 -0.0291198
0.0288558 0.117834 -0.00237406
-0.0758216 0.169783 -0.0307637
0.0147352 0.128842 0.00411575
-0.000615384 0.0907686 0.0560244
-0.0270377 0.0768702 0.0461111
-0.0278882 0.0805957 -0.0361629
-0.0661236 0.15465 0.00173928
0.00276455 0.0586768 -0.032362
-0.0538462 0.159278 -0.00186581
-0.00253464 0.0382196 0.0206329
-0.0287062 0.0653815 0.0385723
0.029871 0.119054 0.022679
-0.00808685 0.0370193 -0.0253775
-0.0439343 0.12412 0.0241786
-0.0708799 0.133353 0.0494573
-0.056953 0.0610584 -0.00392882
-0.0254996 0.156762 -0.00791039
-0.0715851 0.0824019 -0.0159238
-0.066716 0.130706 -0.00878108
-0.0212702 0.0380279 0.0534537
-0.047924 0.160472 0.00738381
0.0343074 0.0377576 0.00212467
-0.0302858 0.0898035 0.0445602
-0.0638572 0.0659084 -0.00720205
0.0262778 0.063709 0.044237
0.0556676 0.050405 0.00612022
-0.0679883 0.0338591 -0.00135373
-0.0187591 0.100216 0.0442286
0.00171013 0.0775507 -0.0353554
-0.0692149 0.165822 -0.0196595
-0.0442365 0.111375 -0.0172484
0.0246991 0.0382372 0.0303051
-0.0692384 0.157371 -0.00374952
0.0100787 0.0840745 0.0549681
0.00921575 0.034706 0.0193925
-0.0855222 0.148015 0.0337447
-0.0215987 0.123669 0.025251
-0.0627111 0.146837 -0.0105799
-0.0587916 0.047524 -0.000706944
-0.0841248 0.150627 0.0311901
-0.0496555 0.103943 0.0405358
0.0167478 0.0405674 -0.0215783
-0.0332607 0.0419218 0.0490529
-0.0896798 0.115065 0.0289751
-0.0554259 0.108037 -0.0182065
-0.0655912 0.0377659 0.0282388
-0.0204925 0.172188 -0.0213453
0.0207677 0.126699 0.0121809
-0.0772369 0.163841 -0.032826
0.00797784 0.105093 -0.0206721
-0.00972226 0.0507558 -0.0317169
-0.0761098 0.0822945 -0.011929
-0.0153021 0.0809976 -0.0392068
-0.0544831 0.154669 0.0131128
-0.0444276 0.128732 0.00115326
-0.0620102 0.0360467 0.021505
0.0262043 0.0521501 0.0398555
-0.0780112 0.16673 -0.0352751
-0.0677979 0.155554 -0.0499408
-0.0591258 0.0858527 0.0444297
0.0582311 0.0595678 0.00348096
-0.090552 0.13135 0.0329786
-0.0819117 0.0778295 -0.000568669
-0.0477006 0.106897 0.0398498
-0.0430006 0.103955 0.0411401
0.012151 0.129701 0.00365747
-0.061694 0.0351716 0.024042
-0.00752022 0.0722636 -0.0367842
-0.0111927 0.101324 -0.0241842
-0.0576067 0.0950541 0.0444103
0.0441856 0.0917099 -0.000787547
0.0488533 0.0471624 0.025489
-0.0651008 0.116741 0.047562
0.0209376 0.105058 0.0420046
-0.0534154 0.087641 -0.0219945
-0.0196913 0.0934791 0.0524229
0.0243931 0.118437 -0.00686647
-0.0357861 0.0365007 -0.0303504
0.00872586 0.130604 0.00382602
-0.0710126 0.149596 -0.0372633
-0.0252287 0.0386188 -0.0134744
0.0373517 0.110981 0.0101801
-0.0339571 0.0495447 -0.0147308
0.03761 0.038299 0.0181881
-0.0634381 0.160364 -0.05264
0.0440887 0.0657465 -0.000945269
0.00701697 0.0358072 -0.013373
0.0460498 0.0487971 0.0297415
-0.034675 0.125758 -0.00150748
-0.0648824 0.15566 -0.0447735
-0.0778435 0.15559 0.0199105
0.0188823 0.0406509 0.0428486
0.0373191 0.107136 0.0263974
-0.0458565 0.0338215 0.0273045
0.0246557 0.043993 -0.0104962
-0.0114528 0.045577 0.049196
0.00276687 0.0676944 -0.0333118
-0.0025055 0.039238 0.034625
-0.0685328 0.106127 -0.0133318
-0.00217361 0.0775605 -0.0363314
-0.0315125 0.0991295 -0.0228747
-0.0621212 0.166022 -0.05246
-0.0159806 0.105505 -0.0223199
-0.00502951 0.100023 -0.024724
-0.0723619 0.10435 0.0376922
-0.0809414 0.0982868 0.032996
0.0175582 0.0435815 0.0437647
0.0173439 0.127541 0.00345657
0.0567867 0.0585382 0.0245659
0.0534511 0.0537187 -0.00113456
-0.0286217 0.0469053 0.0487922
-0.0120566 0.17035 -0.0239945
-0.0607713 0.13272 0.0382196
0.00257458 0.0616822 -0.0330013
0.035462 0.106939 0.0294929
0.0525335 0.0719319 0.0208903
0.0177255 0.116049 0.036376
0.00504905 0.0345122 -0.0157857
-0.0641041 0.0457269 0.00197922
-0.0533037 0.137156 -0.00148413
-0.0760646 0.0682007 0.00659851
0.0053304 0.0700203 0.055866
-0.0615863 0.155697 0.00894058
0.0261641 0.0458366 -0.0126764
0.0237439 0.0667064 -0.025068
-0.0852235 0.151758 0.0274704
0.0260059 0.106795 0.0383769
-0.00372676 0.0447959 -0.0275376
0.022172 0.121462 0.0299338
-0.0653151 0.0934168 -0.018083
0.00618569 0.118127 0.0377692
-0.00414414 0.0383152 0.0171628
-0.0474204 0.0343902 0.0299452
-0.02988 0.0647807 -0.0263072
0.0436008 0.0638968 0.0284734
0.0391539 0.100534 -0.00611151
-0.0627333 0.0349776 -0.00772223
-0.0652383 0.0946879 0.0430016
-0.015455 0.183029 -0.0209299
-0.02691 0.0381285 0.007152
-0.00467797 0.070558 -0.0357919
-0.0443073 0.0437147 -0.0144672
-0.0280601 0.167848 -0.0175276
-0.0523349 0.0476855 -0.0075158
0.00588011 0.125795 0.0315034
-0.0296044 0.0779796 -0.0341929
0.0445593 0.0688764 0.000481881
-0.00174104 0.0544138 -0.031786
-0.00300182 0.130671 0.0199977
-0.0366088 0.104782 0.0394105
-0.0263763 0.0339895 -0.022027
-0.0322511 0.0691461 -0.0225375
-0.0655029 0.152882 0.0343548
-0.0513008 0.110159 0.0374918
0.0315079 0.10476 0.0354843
0.0228643 0.0417764 -0.00882453
-0.0387535 0.033809 0.0014065
-0.064442 0.0411268 0.0139129
-0.0524712 0.0345592 0.0409782
-0.0528898 0.0573143 -0.00776389
-0.0326297 0.0347158 0.0236065
-0.0462292 0.0498372 0.0387758
-0.0645898 0.157153 -0.0112821
-0.088919 0.101586 0.0169628
-0.0520192 0.137221 0.0262211
-0.0182007 0.124344 -0.00445674
-0.043338 0.0596332 0.0399192
0.0237521 0.102754 0.0421582
-0.0823519 0.0986954 -0.00552824
0.0556484 0.0550198 0.0246607
-0.0274958 0.0508953 0.0422684
0.0125379 0.0343791 -0.0166998
-0.0344329 0.0391205 -0.0299293
-0.0617565 0.0336925 0.0103499
0.0232482 0.074237 0.0486228
0.0238808 0.0401744 0.0375353
-0.0190734 0.170999 -0.0149261
-0.0524955 0.0486618 0.0141041
-0.0205721 0.12656 0.00339673
-0.0443662 0.0917192 0.042881
-0.0526166 0.161761 0.00499648
-0.048785 0.121686 0.0308272
0.029704 0.0355127 0.00491839
0.031542 0.0519779 -0.0114738
-0.0723007 0.0785844 0.0380484
-0.0889546 0.122907 0.00267136
0.0289548 0.0388876 -0.0022485
-0.0558418 0.0713258 -0.0158626
-0.000562068 0.0348052 0.0440973
-0.0804653 0.077612 -0.0040336
-0.0398958 0.104317 0.0399166
-0.083856 0.15406 0.0174037
-0.048687 0.166329 0.00124002
-0.0682748 0.145613 -0.0215329
-0.0234235 0.0471768 -0.0275416
-0.00715656 0.0498921 0.0507941
-0.0642162 0.156186 0.0213616
-0.0145882 0.0796787 0.0569007
-0.0591174 0.0457518 -0.00353021
-0.0155748 0.166571 -0.01974
-0.000320091 0.0352566 0.0135788
-0.0550565 0.0683827 0.0376361
0.00599807 0.0553247 0.0530453
-0.0427875 0.159929 0.00482604
0.00256466 0.0411022 0.0462113
-0.0479011 0.124718 0.0291116
-0.0727968 0.152187 -0.0374083
-0.0399703 0.128137 0.0130285
-0.0744978 0.16178 -0.0337157
0.0351595 0.0825522 0.039254
0.0458352 0.0881618 0.0075981
-0.0180017 0.111505 0.0401593
-0.0528159 0.0574565 0.0254766
0.0606823 0.062103 0.0153776
-0.0678435 0.148066 -0.0312235
-0.0534631 0.159273 0.0077304
-0.0440775 0.162763 -0.00931356
0.0426869 0.0686748 -0.00236238
0.0209373 0.107647 0.0400407
-0.0694845 0.135911 0.0475368
-0.0496065 0.0690142 -0.0144259
-0.0221446 0.0872117 0.0547681
-0.0579515 0.0638277 0.0312033
-0.0326477 0.177903 -0.00758301
-0.0528424 0.0808123 -0.0209833
-0.03816 0.172775 -0.00121254
-0.0200163 0.034777 0.0442813
-0.0290709 0.171664 -0.00793752
-0.0126298 0.17469 -0.0208848
-0.0415813 0.152675 -0.00718052
0.0183342 0.0832558 0.0512737
-0.0618917 0.0342764 0.0271833
-0.0345381 0.127108 0.00565992
-0.064347 0.0612247 0.00155496
-0.0828016 0.137502 0.0471683
0.00839452 0.0681848 0.0550869
-0.0337714 0.060865 0.0391183
-0.0448595 0.035316 0.007847
-0.0371594 0.174594 -0.0102347
-0.0837122 0.0771201 0.0110242
0.00798093 0.0545262 -0.0302511
-0.0687172 0.147214 0.0410418
-0.0337674 0.066512 -0.0172702
-0.0696071 0.07547 0.0378912
-0.0508056 0.142331 0.016365
0.0119772 0.113569 0.038443
-0.0510129 0.0753266 -0.0177752
0.0519887 0.0669598 0.0268695
-0.0237863 0.0382668 -0.0168321
-0.0626473 0.161057 -0.0448879
0.00371925 0.0377518 -0.0240831
0.0111633 0.0702346 0.0544269
0.0277962 0.0890732 -0.0215628
-0.0492609 0.112275 0.0359525
-0.0214069 0.09556 -0.0286699
0.0274895 0.0858865 -0.0221009
0.0538131 0.0726142 0.00844808
-0.00657371 0.0353551 0.0469589
0.0386143 0.106641 0.0236164
0.0498484 0.0450478 0.0203867
-0.052782 0.117391 0.0344747
-0.052509 0.0366012 0.0460886
-0.0751342 0.112494 -0.0062719
-0.0220683 0.0668132 -0.0362361
-0.0553822 0.0651695 -0.00920339
-0.087853 0.149599 0.0098434
-0.0907009 0.142279 0.0259077
-0.0630063 0.148002 -0.0135109
0.0460578 0.0845342 0.0082835
0.00679477 0.0738889 -0.0339996
-0.0117068 0.0667418 -0.0368082
-0.034203 0.110354 0.0368214
-0.0722242 0.15481 0.0290676
0.00233618 0.0471662 -0.0287189
0.0379128 0.0618371 -0.0101335
0.0319483 0.0448581 -0.00586991
-0.00440086 0.0515218 0.0528156
0.0225605 0.0794563 -0.0260221
-0.0891089 0.132974 0.0416259
0.0417005 0.0937377 0.0276915
0.0286611 0.100411 0.0405406
0.0244173 0.122559 0.0009927
-0.0853771 0.131138 -0.00100082
0.0106198 0.0628856 0.0532518
-0.0944397 0.124338 0.0219122
-0.0524013 0.126733 0.0347516
-0.0268253 0.119995 -0.0101897
-0.0762074 0.114542 0.0501582
-0.0511118 0.0547557 0.016407
-0.0763957 0.152173 -0.00968982
-0.0253315 0.121127 0.0280108
-0.0517196 0.161942 -0.00295915
0.0369816 0.109357 0.0239387
-0.029818 0.0380925 0.0047805
-0.0625948 0.16558 -0.0419992
-0.0335406 0.176446 -0.00479842
0.00248391 0.0376573 0.0244683
-0.0152714 0.116727 0.0376285
-0.0391106 0.125663 -0.00575342
-0.0385277 0.0506049 0.0392125
-0.0148481 0.128916 0.010675
-0.0147371 0.0738645 0.0557671
-0.0114784 0.129718 0.0105321
0.0198856 0.0429581 -0.0200789
-0.049599 0.109237 -0.018661
-0.0231374 0.182147 -0.0189085
-0.0783757 0.0845669 -0.0104895
0.00837872 0.0936732 -0.029922
-0.045243 0.167039 0.00280062
-0.0121193 0.179253 -0.024148
-0.0690828 0.100689 0.0404769
-0.0333865 0.124181 -0.00451411
-0.0360725 0.0348365 0.0226725
0.0507347 0.0521361 0.0279494
-0.0511231 0.103677 -0.0203717
-0.0870981 0.139862 0.00786891
-0.0780245 0.149748 -0.00240542
-0.0368492 0.123737 0.0250333
0.0299991 0.0937348 -0.0187
-0.0552235 0.0645555 0.033285
-0.0252379 0.158172 -0.0107871
-0.0507007 0.128708 0.03216
-0.0636916 0.163576 -0.0575613
-0.0600583 0.046777 0.00820237
0.00197557 0.0936112 -0.032486
-0.0714694 0.152811 0.0342065
-0.0466231 0.160106 -0.00793026
-0.0611352 0.111084 -0.0153073
-0.0232919 0.160672 -0.00397804
-0.0909051 0.145608 0.0254052
-0.000449628 0.0962896 0.0537236
-0.0364601 0.0344836 0.0335597
-0.0620187 0.170565 -0.0598318
-0.0783522 0.15559 0.0165609
0.0307871 0.0870933 -0.019924
-0.0494212 0.137534 0.00489002
-0.0515707 0.0551215 0.0201707
-0.0149766 0.0827453 0.0571895
-0.0227749 0.0385525 -0.011004
-0.064991 0.0407253 0.0299061
-0.0920738 0.128183 0.00950443
-0.0548196 0.0471684 0.0129812
0.0397265 0.038762 0.0155122
-0.081551 0.105331 -0.00388544
-0.0909133 0.145534 0.0152699
0.000468423 0.0838772 0.057513
0.00167353 0.0343535 0.0103829
0.015153 0.108794 0.040739
-0.074891 0.148701 -0.0180771
-0.0563974 0.0475568 0.0293114
-0.0649146 0.140771 -0.00767317
-0.0153375 0.0385596 0.0287242
-0.00205761 0.037408 0.00729767
-0.0202149 0.120786 -0.00998643
-0.00894792 0.117419 -0.0153761
-0.0199578 0.0778388 0.0551617
0.0559604 0.0718149 0.0191092
-0.0310309 0.0640848 -0.0215377
0.0233761 0.0988674 -0.0207306
0.0489167 0.0461338 0.00120592
-0.0449208 0.0346304 0.0391719
-0.0700897 0.0761424 -0.0142568
-0.0779145 0.169738 -0.0372456
0.0594096 0.0562576 0.0162625
0.0154553 0.118469 0.0354137
-0.0693989 0.14867 -0.0346339
-0.0337021 0.0451223 -0.0269135
-0.0346126 0.0635796 0.0403368
-0.0311528 0.123953 -0.00299198
-0.0483081 0.154215 -0.00599176
0.0397681 0.0714675 0.0328713
-0.0207973 0.184522 -0.0195567
0.0182895 0.109825 0.0394268
-0.0539674 0.120187 -0.0116542
0.0202936 0.0695649 -0.0281974
-0.0535446 0.151662 0.0199913
-0.0163177 0.113996 0.0390502
0.0154094 0.0966237 0.0480882
-0.0655646 0.0425646 0.0112508
-0.0558222 0.15938 0.00106616
-0.030554 0.0611059 -0.020718
-0.0324768 0.0772098 -0.0292916
-0.00807774 0.0471672 0.0485275
-0.0255732 0.0484196 0.0487638
-0.0252455 0.175731 -0.0193235
0.00717404 0.0974417 0.0500159
-0.0629759 0.156422 -0.0144564
-0.0768716 0.154787 0.0266282
-0.0366049 0.0343464 0.0297238
0.00911318 0.0353678 -0.00712494
-0.0445785 0.129867 0.0166094
-0.0857237 0.0833988 0.00382621
-0.0247985 0.158189 -0.00242232
0.0536904 0.0471123 0.0114035
0.0164516 0.127974 0.0210082
-0.0732785 0.110607 0.0442482
0.0421197 0.101347 0.00238467
-0.071009 0.0388667 0.0084462
0.0171207 0.0346096 -0.00260093
-0.0500468 0.145779 -0.00124727
0.0393078 0.10727 0.00398391
-0.0394443 0.155406 0.00494472
-0.0509321 0.137805 0.00172261
-0.0274797 0.158459 -0.000760126
-0.064905 0.0699114 0.0359116
-0.0106332 0.109848 0.0425542
-0.0330719 0.0874011 0.0433888
-0.0729507 0.0644063 0.00913642
-0.0829492 0.152929 0.00803307
-0.0200166 0.0350671 -0.0274507
-0.0604328 0.126361 -0.00801357
-0.0913383 0.132572 0.0260587
-0.0276373 0.121633 0.0251854
-0.053948 0.0482338 0.0266407
0.0327117 0.108003 -0.00936025
-0.0215378 0.0649383 0.0474762
0.00308814 0.109651 -0.0202277
-0.0248884 0.0740323 0.0477399
-0.085851 0.111062 0.037579
0.0277714 0.0824989 -0.0222628
-0.014864 0.0384487 0.00355338
0.0576891 0.0558004 0.0221299
-0.0341968 0.152482 -0.00182764
-0.0381396 0.126752 -0.00222039
-0.0657924 0.0371157 0.0375454
0.00734895 0.0975051 -0.0254978
0.025993 0.0550885 0.0418883
-0.0241838 0.0379634 0.0186861
0.00331817 0.0388855 0.0275496
-0.069167 0.0781597 0.0396365
-0.0133344 0.0990264 -0.025121
0.00166571 0.0747407 0.0570671
-0.0596766 0.045531 0.011519
0.0307099 0.09795 0.0403316
-0.0900857 0.133799 0.00769216
0.0476774 0.0738658 0.0170221
0.0314299 0.039204 0.025749
-0.085667 0.102487 0.00207495
0.0449196 0.0414158 0.0165164
0.0409696 0.0984135 -0.00371453
-0.0129218 0.104188 -0.0232343
0.00764939 0.0360249 0.0355275
0.00420837 0.0927809 0.0544584
-0.0529202 0.129818 0.0340903
-0.00953604 0.094186 -0.0341375
-0.0650368 0.127561 0.0465098
-0.0596958 0.0339673 -0.00782043
-0.0485473 0.127785 0.029472
-0.0100972 0.0572464 0.0532105
-0.00185215 0.0598671 0.0556061
-0.0429609 0.121535 -0.0120774
-0.0853176 0.0933117 -0.00237629
-0.0454514 0.0547997 -0.010903
0.0125131 0.0350822 0.0275002
-0.0505688 0.0892332 -0.0217487
-0.02794 0.156033 -0.00214387
-0.031467 0.0542325 -0.0141927
-0.0322557 0.0595679 -0.0144161
-0.0221029 0.0936155 0.049937
-0.0500828 0.0607019 0.0335164
-0.0898728 0.135513 0.0356916
0.00026456 0.121481 0.0363748
-0.0662296 0.173382 -0.0592895
-0.0849075 0.138809 0.00161447
-0.0905248 0.123488 0.00580261
0.0288074 0.0365193 0.0213416
-0.0755494 0.165216 -0.0214065
-0.0904797 0.11464 0.00778753
-0.00680275 0.100737 0.0457307
-0.0435634 0.0837843 0.0430029
-0.0623226 0.110808 0.0374436
-0.0533122 0.101266 -0.0209838
-0.00578332 0.130784 0.0105976
-0.0866805 0.089635 0.00191095
0.0322157 0.0481117 -0.00708312
-0.0885118 0.136635 0.00776713
0.0367943 0.0371509 0.00858719
-0.0286936 0.0983863 -0.0236879
-0.0288234 0.0888435 -0.0317139
-0.0167835 0.039373 0.038747
-0.0817089 0.121333 0.0497488
0.00574206 0.112297 0.0409313
-0.0589453 0.0483429 0.00274279
-0.0677201 0.0383731 -0.00492902
0.0283208 0.0572641 0.0413891
-0.0587659 0.113098 -0.0152363
0.0058373 0.106481 0.0419952
-0.0878552 0.120485 0.00060538
-0.0931116 0.130656 0.0207903
-0.0607363 0.076961 0.0422735
-0.0302174 0.122617 -0.00571083
0.00806272 0.102111 -0.0212684
0.0203067 0.113686 -0.0139345
-0.0520438 0.0343655 0.0108385
-0.0510769 0.0482688 0.0172674
0.0376577 0.104 0.0284652
0.0227566 0.063567 -0.025641
0.0103908 0.0602265 -0.0301649
-0.035913 0.0576159 -0.0111776
0.0219881 0.0918162 0.0477641
-0.0321966 0.178301 -0.01082
-0.0616996 0.155552 0.024399
-0.0648485 0.0693641 -0.0110021
-0.0423582 0.0459402 -0.0146377
-0.0195217 0.0903169 0.054777
-0.0169465 0.18045 -0.0191497
-0.0676967 0.137719 0.0451556
-0.0287381 0.0373562 -0.0298303
-0.0359546 0.0660901 -0.0150544
-0.0312012 0.0711797 -0.0280333
-0.0141251 0.0675798 0.0538934
-0.0305219 0.118944 -0.0113031
-0.0479715 0.1355 0.0174818
-0.0571506 0.0472168 0.0400449
-0.0775005 0.0932151 -0.0120773
0.00579602 0.0345468 0.0196546
-0.065848 0.145361 0.0403505
-0.0158617 0.0968824 -0.02911
-0.0605972 0.100533 -0.0185252
-0.071907 0.162895 -0.0425941
-0.0144113 0.0392357 0.0375642
-0.0203208 0.0478062 -0.0286263
-0.0131004 0.0387722 -0.0054233
0.0187851 0.0402877 -0.019411
-0.0301533 0.0496002 0.0432385
0.0532046 0.0512356 0.000412706
-0.0689621 0.0338502 0.0058773
-0.0820315 0.0903304 -0.00711196
-0.0335434 0.0714212 -0.0213469
0.0223819 0.0363575 0.0285448
0.026283 0.118827 -0.00409644
-0.0468255 0.119028 0.0299309
-0.0325681 0.174332 -0.0146681
-0.00337947 0.129087 -0.00104129
-0.0306469 0.0870141 -0.0295517
0.0118862 0.0549606 -0.0291917
-0.0287285 0.0359705 0.014604
-0.0703958 0.131516 -0.008616
0.00741503 0.0919172 0.0537372
-0.000556072 0.0385513 -0.0132511
-0.0324995 0.0716637 -0.0247207
-0.0529048 0.0342711 0.0287093
0.0274485 0.0399662 0.029794
-0.00167905 0.0516764 -0.0309659
-0.0714456 0.146275 -0.0216708
0.0223358 0.036856 0.0321046
-0.0595812 0.0581658 0.0141424
-0.0290337 0.173914 -0.00695592
-0.0309986 0.0488615 -0.0224421
-0.0209874 0.123947 -0.00445351
0.035909 0.0616442 -0.0126955
0.0134924 0.101827 0.0467861
-0.0478024 0.054255 -0.0100031
-0.0296395 0.160299 -0.00031036
-0.031011 0.036467 0.03697
0.0332646 0.0819799 -0.0187336
-0.0463977 0.162735 0.00599925
-0.0912744 0.133532 0.0127322
-0.0169511 0.173171 -0.0235374
-0.0272455 0.165403 -0.00721581
-0.0709259 0.154012 0.0315059
0.0372164 0.0421916 -0.00287235
0.0414512 0.101374 0.0204431
-0.0306784 0.113983 0.0345281
0.0207519 0.0617 -0.0268771
-0.0543468 0.0568028 0.0151964
-0.0475884 0.0756115 0.0423644
-0.0621683 0.169205 -0.0517104
-0.0836381 0.114123 -0.000397342
-0.06152 0.173172 -0.0577881
-0.0498511 0.141204 0.00339106
0.0607662 0.0635644 0.0119488
-0.0185943 0.0795664 -0.0388881
-0.0434467 0.0345298 0.0358866
-0.0417908 0.0842586 -0.0214952
-0.0758549 0.149193 -0.0122677
-0.0777334 0.169257 -0.0405623
0.0270008 0.04439 0.0361274
-0.0876194 0.113008 0.0306571
-0.0229533 0.120232 0.0310053
-0.0157552 0.128767 0.014415
-0.0175991 0.119401 -0.011716
-0.0528099 0.110354 -0.0180444
-0.0694593 0.0373374 0.0105624
-0.0128114 0.107676 -0.0216544
-0.0370562 0.047864 0.0399074
-0.0154054 0.0388682 -0.0118581
-0.0649745 0.159306 -0.0139233
-0.0890711 0.126088 0.00315095
0.0318065 0.0917176 0.0419858
-0.0805402 0.0840927 -0.00761384
-0.0104621 0.0630897 -0.0357825
-0.0670987 0.0441792 0.00250799
0.00333504 0.131575 0.0089141
-0.0374854 0.101862 0.0409683
-0.051751 0.0478269 0.0208777
-0.0657653 0.138999 0.0420874
0.0528506 0.0473982 0.0203216
0.0110857 0.104347 -0.0202748
-0.0616781 0.0333916 -0.00445197
0.00999779 0.0344612 -0.00422109
-0.0882048 0.0913803 0.0233044
-0.0601435 0.101198 0.042388
0.0302632 0.0351465 0.0083402
-0.0222087 0.048209 0.0494151
-0.00754412 0.0604101 -0.0348073
-0.0717197 0.151068 0.0372156
-0.0241644 0.038031 0.022509
-0.0705732 0.146923 -0.025177
0.0117036 0.035515 0.00405962
0.0160338 0.0354548 0.0403001
-0.072894 0.134641 -0.00756956
-0.00477469 0.0583455 0.0543117
-0.0233665 0.121308 -0.00876691
-0.0547175 0.0334889 0.00795515
-0.04748 0.0396515 -0.0128142
-0.0639855 0.102094 -0.0174698
-0.0128868 0.100592 0.0448182
-0.08269 0.0768391 0.0205197
-0.0405079 0.0341585 0.0282264
-0.0313575 0.169472 -0.00610842
-0.0161665 0.164804 -0.0116548
0.00161638 0.123434 -0.00995915
-0.0424685 0.148694 -0.00230897
-0.0350034 0.0422802 -0.0286787
-0.028144 0.0526026 0.0388786
0.0184078 0.104161 0.0439869
-0.0493717 0.164284 -0.00423936
-0.0588052 0.0784094 -0.0193402
-0.0496687 0.0435003 -0.0101778
0.0419285 0.0657879 -0.00371163
-0.092378 0.115768 0.0201838
-0.0670452 0.0799384 0.0416039
0.0303574 0.100928 -0.015341
-0.0377739 0.0346776 0.0264757
-0.0273349 0.0581979 -0.0270819
0.0464101 0.0467423 0.0272739
0.0383673 0.109332 0.00689467
-0.00399944 0.127679 -0.00426832
-0.0620369 0.153685 -0.0245012
0.00873836 0.0376539 0.03239
0.0436976 0.0501971 -0.00573129
-0.037075 0.0813911 -0.0213273
0.0218633 0.0669748 -0.0269509
-0.0101601 0.0489209 0.0492818
0.0147855 0.0509847 0.047057
-0.0914498 0.117506 0.0421857
-0.011172 0.0362949 -0.025718
-0.0230492 0.0641664 -0.034414
-0.020141 0.0694598 0.0521148
0.0271828 0.0513545 -0.0194345
-0.0298003 0.0360646 0.0221611
-0.0264234 0.0429 0.0529178
-0.0739465 0.109568 -0.00882857
0.00576831 0.0482406 -0.0279775
-0.0439763 0.150373 -0.00502044
-0.0471019 0.163601 -0.00696124
0.037038 0.0960138 -0.0104793
-0.0346446 0.113134 0.034663
-0.0623547 0.0921943 -0.0189964
0.0386999 0.0378635 0.0122022
-0.0473301 0.033719 0.00570424
-0.0303119 0.0579736 -0.0195026
-0.0772291 0.0971687 -0.0113503
-0.0521929 0.145506 0.0176246
0.00958647 0.130175 0.0216767
-0.0469863 0.0349972 0.0424059
-0.0619247 0.154126 0.0304145
-0.023792 0.0382419 0.00403165
-0.0751229 0.102187 0.0367668
-0.0198859 0.0336623 -0.025076
-0.0177976 0.0714737 0.0543137
-0.0730412 0.11946 -0.0080561
-0.0060665 0.130427 0.00652787
0.0355595 0.106321 -0.00710945
-0.0779629 0.0793978 0.0337289
-0.0061191 0.130726 0.0147933
-0.0696927 0.115837 0.0514528
-0.0699874 0.155109 -0.047474
0.0349309 0.0461915 0.0306765
-0.0895735 0.112643 0.0102344
-0.0870458 0.109205 0.0145251
-0.0215039 0.169308 -0.0197485
0.0261914 0.120406 -0.00131274
-0.0241719 0.183127 -0.0129692
0.0565085 0.0499885 0.0118903
0.0577378 0.0622348 0.0241242
-0.0451891 0.169912 -0.00308926
0.0247619 0.115787 -0.00932568
-0.0650889 0.118566 -0.00913212
0.00208541 0.0648388 0.0565374
0.012254 0.104771 0.0446156
-0.0793608 0.154036 0.00723829
-0.0617225 0.158154 -0.0322075
-0.0076253 0.0384184 0.0172946
-0.0108913 0.114264 -0.0173693
-0.0538712 0.0349505 -0.0105283
-0.0726603 0.159065 -0.0362521
-0.0561787 0.0555094 0.00875867
0.00850911 0.0990721 -0.0227707
-0.0647603 0.147299 -0.0214216
-0.0368442 0.123276 -0.00820969
-0.0862753 0.114037 0.0028433
-0.00604311 0.0384637 0.0203656
-0.0807762 0.147348 -0.000249285
-0.087362 0.0857171 0.0174534
-0.0620529 0.160976 -0.0292059
-0.0863487 0.153148 0.0190068
0.0261949 0.112277 -0.0111565
-0.0903487 0.114162 0.0221496
-0.0179343 0.0804204 0.0570699
-0.0167397 0.070894 -0.0384655
0.0102359 0.129469 0.000923846
-0.0271584 0.0495055 0.0458583
-0.0519688 0.0538896 0.0235538
-0.017955 0.0834904 -0.039029
-0.00977737 0.124077 0.0324873
-0.0763483 0.155082 -0.0064207
-0.0463515 0.059445 0.0378979
-0.0579558 0.0636067 -0.00672807
-0.0620858 0.0694358 -0.0131781
-0.0175018 0.0384059 0.0254197
-0.0202876 0.0378154 -0.0170446
0.0315998 0.0760939 0.0424969
-0.0801058 0.109324 0.0361256
-0.0172831 0.0360654 -0.0266718
0.0432297 0.077473 -0.00385296
-0.0535236 0.162085 0.000942495
0.00884015 0.128452 0.0271968
0.0413279 0.0531914 0.032196
0.0486315 0.0710211 0.0219859
-0.0767071 0.157221 -0.0218671
0.029288 0.0367883 0.00110059
0.0475647 0.0515528 0.0302754
-0.0619838 0.114085 -0.013302
-0.0845347 0.0947483 0.0295309
-0.00703777 0.0910984 -0.0356961
-0.0884789 0.112442 0.0397091
-0.0733092 0.109351 0.0400714
0.0021156 0.0547632 0.0537795
-0.00955477 0.127188 -0.0037093
0.0329075 0.076731 -0.0184031
-0.0502078 0.0577684 -0.0100551
-0.0314477 0.0371238 0.0296231
0.00754564 0.125406 -0.00771977
0.0446826 0.0949411 0.00490474
-0.0751705 0.172315 -0.0366775
-0.0842843 0.0805638 0.0219506
-0.0494855 0.132508 3.7592e-05
-0.0691429 0.113642 -0.00962053
0.00504645 0.0775658 -0.0343342
0.0454848 0.0891514 0.0135563
-0.0325813 0.0336524 -0.0229317
-0.0304365 0.118321 0.0306794
-0.00422983 0.0613708 -0.0348422
-0.0298576 0.0854009 -0.0325195
-0.0760363 0.171599 -0.0461702
0.0166867 0.100859 -0.0222251
-0.0852028 0.106048 0.023426
-0.0325917 0.0478175 0.0434693
-0.0167807 0.0683131 -0.0381046
-0.0449586 0.036928 -0.0217104
-0.0683883 0.159013 -0.00770004
-0.00860315 0.084713 -0.0380938
-0.0668539 0.0657659 -0.00479814
0.0153044 0.0552465 -0.0285009
-0.0691367 0.0665657 0.0277199
-0.033044 0.170362 -0.00329281
0.023671 0.124993 0.0142695
-0.0345129 0.0605459 -0.0125709
0.0298899 0.0675932 -0.0196674
-0.0764901 0.073194 0.0294124
-0.00942123 0.129551 0.00456194
0.0100821 0.0935263 0.0521516
-0.0855066 0.134459 0.046767
-0.0708903 0.174536 -0.0422234
-0.00489391 0.0425278 0.047987
-0.0800688 0.111856 0.0455524
-0.0758017 0.152603 -0.0176229
-0.0887809 0.141313 0.0355884
-0.00512987 0.0654174 0.0562968
-0.00434856 0.0383575 -0.0139091
0.0148479 0.0345432 -0.00951128
-0.0691562 0.0337708 0.00191555
0.0143343 0.128079 0.000447611
-0.000790646 0.0627454 -0.0342755
0.0454396 0.0778705 0.00208242
-0.0596718 0.0338285 0.0167126
-0.0667701 0.0983922 0.041782
-0.0323341 0.0664043 0.039717
0.0209484 0.120159 -0.00758465
-0.0734509 0.169239 -0.0458293
0.0212946 0.123293 0.0274337
0.0402884 0.0682838 -0.00879194
-0.0246383 0.172839 -0.0119803
-0.0114399 0.0516619 0.0508615
0.0241679 0.0809665 0.0489367
-0.0162731 0.126267 0.0250912
-0.0561752 0.034187 0.0274695
-0.0782845 0.0716866 0.0224981
-0.0291522 0.164579 -0.0159672
-0.0897382 0.134666 0.032228
-0.0179399 0.0382266 0.021215
-0.0215929 0.10284 0.0434555
-0.0816891 0.0959818 -0.00677648
-0.0661266 0.037215 0.0317007
-0.0796998 0.149137 0.0376472
-0.0543943 0.0485331 0.0384266
0.0130955 0.0364046 0.0433856
-0.00591442 0.0385428 0.04841
-0.076266 0.109602 0.0420037
-0.0542121 0.0444836 0.0208309
-0.00459729 0.0780742 0.0581005
-0.0394001 0.0893171 -0.0231633
-0.0400131 0.0475605 -0.0138155
-0.0940435 0.124043 0.0157492
-0.0571822 0.0505802 0.000166464
0.020687 0.0490238 -0.0226973
-0.0324036 0.0383336 -0.00318576
-0.0743033 0.0925229 -0.0145255
